ply
format ascii 1.0
element vertex 664
property float x
property float y
property float z
property uchar red
property uchar green
property uchar blue
end_header
2.81874394416809082 1.57282590866088867 -10.4683513641357422 59 59 59
1.63712799549102783 2.08615899085998535 -5.27156686782836914 40 40 40
3.22438931465148926 1.52364790439605713 -10.761383056640625 55 55 55
4.12597846984863281 0.368320673704147339 -13.4364023208618164 57 57 57
3.28404378890991211 1.51579606533050537 -10.5967063903808594 40 40 40
3.99513554573059082 1.2943260669708252 -12.6929502487182617 37 37 37
3.88736248016357422 1.3194042444229126 -12.2982978820800781 59 59 59
3.11533093452453613 1.65178978443145752 -9.64907169342041016 89 89 89
3.21115827560424805 1.59291207790374756 -9.96044158935546875 47 47 47
1.82401013374328613 2.07402777671813965 -5.35981655120849609 41 41 41
3.4249722957611084 1.58491909503936768 -10.483546257019043 83 83 83
3.14593386650085449 1.66583907604217529 -9.53793811798095703 51 51 51
3.63875174522399902 1.53252744674682617 -10.4738826751708984 56 56 56
4.39746284484863281 1.32704377174377441 -12.6546773910522461 83 83 83
3.69694614410400391 1.53307580947875977 -10.4471559524536133 53 53 53
4.75713396072387695 0.00154070265125483274 -13.3283548355102539 112 112 112
4.79591178894042969 -0.16366112232208252 -13.3808507919311523 112 112 112
4.76638984680175781 -0.382795751094818115 -13.1795835494995117 111 111 111
3.13364243507385254 1.78382003307342529 -8.5234375 89 89 89
4.86006307601928711 -0.144354313611984253 -13.3464679718017578 46 46 46
3.92904233932495117 1.53128814697265625 -10.6584768295288086 54 54 54
4.73948955535888672 -0.338890731334686279 -12.8728532791137695 63 63 63
4.09318208694458008 1.50223934650421143 -11.0333776473999023 89 89 89
2.81415200233459473 1.92507171630859375 -7.29769754409790039 53 53 53
3.66855168342590332 1.68745708465576172 -9.46882343292236328 53 53 53
6.75353574752807617 0.275398850440979004 -17.4225482940673828 39 39 39
3.74138236045837402 1.68033182621002197 -9.43067264556884766 60 60 60
4.15434980392456055 1.59449303150177002 -10.2091360092163086 86 86 86
5.08598947525024414 1.2882387638092041 -12.5029973983764648 35 35 35
6.65189838409423828 0.449406325817108154 -16.3393764495849609 39 39 39
5.39239788055419922 1.30983471870422363 -13.060760498046875 72 72 72
22.8749465942382812 -15.9499225616455078 -52.3411293029785156 73 73 73
23.2732467651367188 -16.768218994140625 -53.0930633544921875 82 82 82
21.678192138671875 -19.1604290008544922 -48.521881103515625 53 53 53
5.36385297775268555 1.2748565673828125 -12.6075983047485352 78 78 78
22.0385227203369141 -19.4205875396728516 -48.7819290161132812 134 134 134
5.6568608283996582 1.21275246143341064 -13.0214967727661133 36 36 36
22.7328014373779297 -19.8728218078613281 -49.6476287841796875 104 104 104
5.70171976089477539 0.867672264575958252 -13.084294319152832 80 80 80
23.9774379730224609 -20.3561496734619141 -52.1896133422851562 42 42 42
23.7081470489501953 -17.4321250915527344 -51.5153579711914062 97 97 97
17.2421398162841797 -5.72937440872192383 -38.6494369506835938 86 86 86
5.54856538772583008 1.37316668033599854 -11.7470455169677734 89 89 89
5.29852962493896484 1.48106038570404053 -10.9765024185180664 69 69 69
5.52242708206176758 1.41021740436553955 -11.4300966262817383 52 52 52
5.03446626663208008 1.58416318893432617 -10.0537614822387695 52 52 52
4.91062736511230469 1.71309792995452881 -9.43388175964355469 78 78 78
8.67644119262695312 0.494978934526443481 -16.3414592742919922 64 64 64
8.60481739044189453 0.601784408092498779 -15.9989089965820312 51 51 51
5.90578603744506836 1.53107523918151855 -10.6479644775390625 59 59 59
6.10871744155883789 1.45001113414764404 -11.0287046432495117 70 70 70
5.95814085006713867 1.50212430953979492 -10.6713743209838867 84 84 84
9.095062255859375 0.633256793022155762 -16.1197071075439453 47 47 47
5.70184803009033203 1.65758693218231201 -9.87797641754150391 72 72 72
23.2233009338378906 -12.0804224014282227 -38.9306411743164062 38 38 38
9.76429080963134766 0.653138458728790283 -15.817138671875 56 56 56
20.9253082275390625 -10.1603221893310547 -31.390106201171875 175 175 175
18.6498355865478516 -9.01676464080810547 -27.3457126617431641 67 67 67
20.6972103118896484 -10.1974124908447266 -30.0848197937011719 53 53 53
21.7494449615478516 -10.5585575103759766 -31.4398727416992188 202 202 202
-2.20477080345153809 1.85220503807067871 -6.09356498718261719 82 82 82
-2.33365511894226074 1.81195974349975586 -6.32920932769775391 105 105 105
-3.47974205017089844 0.140299633145332336 -6.87014007568359375 130 130 130
-1.24679780006408691 2.08520340919494629 -4.33269309997558594 69 69 69
-2.95110464096069336 1.20971667766571045 -7.10574960708618164 39 39 39
-3.47918915748596191 0.0872790664434432983 -6.92577934265136719 168 168 168
-3.26088476181030273 0.46005934476852417 -6.96498441696166992 155 155 155
-1.4213554859161377 2.00013446807861328 -4.88950538635253906 92 92 92
-0.786541283130645752 2.19635748863220215 -3.60060334205627441 78 78 78
-2.52683925628662109 1.70714294910430908 -7.11377239227294922 56 56 56
-0.94253695011138916 2.12539887428283691 -4.00476217269897461 101 101 101
-2.95637273788452148 0.763121306896209717 -7.2212214469909668 245 245 245
-1.23253917694091797 2.0284733772277832 -4.71082782745361328 98 98 98
-0.720121204853057861 2.18842625617980957 -3.59900569915771484 97 97 97
-3.15432024002075195 1.47596800327301025 -8.50971031188964844 48 48 48
-1.60505127906799316 1.93767631053924561 -5.59891605377197266 58 58 58
-1.89942657947540283 1.85411179065704346 -6.26400518417358398 60 60 60
-1.08762991428375244 2.06170225143432617 -4.55320072174072266 65 65 65
-1.77431106567382812 1.87960457801818848 -6.07117176055908203 67 67 67
-1.11355805397033691 2.04323220252990723 -4.65797662734985352 65 65 65
-2.17888045310974121 1.71558678150177002 -7.12777328491210938 75 75 75
-0.911187291145324707 2.07035541534423828 -4.39861106872558594 53 53 53
-1.36942672729492188 1.94473206996917725 -5.51588058471679688 57 57 57
-2.18976044654846191 1.71054756641387939 -7.29450321197509766 100 100 100
-1.34457170963287354 1.95120441913604736 -5.60517454147338867 80 80 80
-2.57792186737060547 1.60894417762756348 -8.28187465667724609 69 69 69
-0.705944240093231201 2.13068342208862305 -4.09990930557250977 59 59 59
-3.68235540390014648 0.125895664095878601 -9.13577651977539062 92 92 92
-0.918698966503143311 2.05834031105041504 -4.67242956161499023 80 80 80
-0.731099545955657959 2.11668038368225098 -4.21053218841552734 55 55 55
-3.60456109046936035 0.139987543225288391 -9.03011131286621094 122 122 122
-0.576662361621856689 2.17188072204589844 -3.80936789512634277 61 61 61
-3.65184235572814941 0.0997099056839942932 -9.09016036987304688 147 147 147
-3.69387030601501465 1.01695919036865234 -10.4789924621582031 168 168 168
-3.6593785285949707 -0.0288552902638912201 -9.07342815399169922 93 93 93
-3.69882035255432129 1.0851893424987793 -10.7702341079711914 147 147 147
-3.83826684951782227 -0.149335131049156189 -9.54352569580078125 49 49 49
-0.525414049625396729 2.16002988815307617 -3.84186935424804688 105 105 105
-1.79723906517028809 1.78209054470062256 -7.0338139533996582 89 89 89
-0.948256254196166992 2.02033877372741699 -5.00268983840942383 98 98 98
-1.22967028617858887 1.94755470752716064 -5.72477197647094727 63 63 63
-0.732006371021270752 2.08739948272705078 -4.4607386589050293 48 48 48
-3.47507452964782715 1.32543361186981201 -10.8170690536499023 81 81 81
-3.74641180038452148 0.962302625179290771 -11.0898885726928711 157 157 157
-3.75194549560546875 1.13737714290618896 -11.4306392669677734 134 134 134
-1.84256136417388916 1.74981820583343506 -7.28690385818481445 61 61 61
-0.799569129943847656 2.05145025253295898 -4.72628068923950195 92 92 92
-0.695262014865875244 2.08484673500061035 -4.47561454772949219 48 48 48
-3.73247575759887695 0.960165679454803467 -11.301971435546875 61 61 61
-0.791657567024230957 2.0504298210144043 -4.76642990112304688 65 65 65
-3.66786456108093262 0.0518986880779266357 -9.86953544616699219 169 169 169
-3.47418332099914551 1.28524398803710938 -11.1275091171264648 67 67 67
-0.497285604476928711 2.15121579170227051 -4.02315521240234375 61 61 61
-3.71641826629638672 -0.0685438364744186401 -9.95419216156005859 152 152 152
-3.43712210655212402 -1.6572037935256958 -6.5861515998840332 55 55 55
-3.7815697193145752 1.03238606452941895 -11.8248691558837891 147 147 147
-3.5749361515045166 0.0139052970334887505 -9.85277843475341797 177 177 177
-0.844897270202636719 2.00901627540588379 -5.08632087707519531 49 49 49
-3.57976460456848145 -0.137926027178764343 -9.72122573852539062 141 141 141
-0.938374698162078857 1.9734959602355957 -5.43335056304931641 93 93 93
-3.74674892425537109 0.266829311847686768 -10.9706430435180664 183 183 183
-3.81717753410339355 0.848926961421966553 -12.2596940994262695 149 149 149
-3.78903818130493164 0.810644686222076416 -12.4176568984985352 148 148 148
-3.74462056159973145 1.02906668186187744 -12.9559030532836914 113 113 113
-3.8215644359588623 0.825331211090087891 -12.9397373199462891 55 55 55
-0.363622218370437622 2.13418054580688477 -4.19943618774414062 52 52 52
-0.355777829885482788 2.12809371948242188 -4.22900676727294922 79 79 79
-3.5593266487121582 -0.936212837696075439 -9.76671504974365234 169 169 169
-1.93583083152770996 1.55336248874664307 -8.96671867370605469 56 56 56
-3.58847260475158691 -1.00992989540100098 -9.99348640441894531 188 188 188
-3.7563786506652832 -0.390963435173034668 -11.9050331115722656 154 154 154
-1.75033426284790039 1.5818336009979248 -8.95505046844482422 64 64 64
-0.425378859043121338 2.03732895851135254 -5.00439071655273438 65 65 65
-3.57468247413635254 -1.58905887603759766 -9.37575244903564453 161 161 161
-0.458341211080551147 2.01091265678405762 -5.15509271621704102 44 44 44
-1.45133602619171143 1.65102243423461914 -8.30920314788818359 79 79 79
-3.47074675559997559 -1.38604855537414551 -9.67067909240722656 187 187 187
-1.47391867637634277 1.63054120540618896 -8.56668472290039062 49 49 49
-0.40758475661277771 2.00705552101135254 -5.24654531478881836 80 80 80
-1.52208185195922852 1.59309995174407959 -8.91201114654541016 61 61 61
-0.401124894618988037 1.99757564067840576 -5.30891180038452148 54 54 54
-1.33686339855194092 1.6521296501159668 -8.5318450927734375 98 98 98
-3.60814046859741211 0.258585423231124878 -14.3484134674072266 28 28 28
-0.0720168054103851318 2.14303326606750488 -4.25479269027709961 70 70 70
-3.70846724510192871 -1.22873401641845703 -12.2210979461669922 176 176 176
-2.46746969223022461 1.12094986438751221 -12.8997402191162109 53 53 53
-3.57742142677307129 -2.45699000358581543 -9.08560562133789062 196 196 196
-0.446223527193069458 1.93549573421478271 -6.16403007507324219 49 49 49
-2.5894014835357666 1.03320419788360596 -13.6503667831420898 66 66 66
-0.17992691695690155 2.03287672996520996 -5.21517705917358398 60 60 60
-3.54143500328063965 -2.90019774436950684 -8.28743076324462891 200 200 200
-3.5364530086517334 -2.73784661293029785 -9.0992584228515625 187 187 187
-3.52022123336791992 -3.02055907249450684 -8.74951744079589844 138 138 138
-3.55542516708374023 -2.72637248039245605 -9.92477130889892578 144 144 144
-0.412971735000610352 1.84375214576721191 -6.89114046096801758 56 56 56
-0.622137546539306641 1.7528311014175415 -7.74469423294067383 93 93 93
-0.0332838669419288635 2.01145124435424805 -5.33967828750610352 75 75 75
-3.52855348587036133 -2.86464929580688477 -9.75674057006835938 143 143 143
0.111815616488456726 2.07884502410888672 -4.82229757308959961 75 75 75
-0.73192828893661499 1.65104913711547852 -8.45920085906982422 69 69 69
0.0982478857040405273 2.07504463195800781 -4.95742082595825195 77 77 77
-2.40715789794921875 0.246214121580123901 -13.3988828659057617 76 76 76
0.119575828313827515 2.07274007797241211 -4.85317659378051758 54 54 54
-3.74836039543151855 -2.46658802032470703 -12.5084123611450195 164 164 164
-2.45047950744628906 0.069957926869392395 -13.4219236373901367 49 49 49
-3.60361218452453613 -3.1404421329498291 -10.0589466094970703 130 130 130
-1.24121522903442383 1.34772562980651855 -11.4730691909790039 49 49 49
-1.37726712226867676 1.27121996879577637 -12.2108430862426758 80 80 80
-3.66609668731689453 -2.79230046272277832 -12.3778982162475586 111 111 111
-1.45369482040405273 1.19022870063781738 -12.6819677352905273 78 78 78
-0.260311931371688843 1.78473472595214844 -7.3844914436340332 90 90 90
-3.55000638961791992 -3.48458075523376465 -9.72768783569335938 182 182 182
-0.0505999736487865448 1.89342963695526123 -6.56313848495483398 52 52 52
-2.37740683555603027 -1.05662119388580322 -13.5724763870239258 31 31 31
-3.69216179847717285 -3.71752452850341797 -12.3494243621826172 112 112 112
-0.784551680088043213 1.34042465686798096 -11.7270879745483398 75 75 75
-3.55996131896972656 -3.62142491340637207 -12.361577033996582 114 114 114
-3.73020601272583008 -3.9107966423034668 -12.4262018203735352 84 84 84
0.483179837465286255 2.0554656982421875 -5.1519780158996582 96 96 96
-0.714642643928527832 1.19145619869232178 -12.4590940475463867 48 48 48
-1.11065340042114258 0.373775303363800049 -12.4953718185424805 61 61 61
-0.361254185438156128 1.39790081977844238 -11.2679004669189453 61 61 61
0.011813528835773468 1.63076150417327881 -8.79175090789794922 65 65 65
0.631524384021759033 2.05694365501403809 -5.20980739593505859 67 67 67
0.0647634789347648621 1.5806581974029541 -9.41591739654541016 65 65 65
0.53966522216796875 1.93907153606414795 -6.27758979797363281 58 58 58
0.558761775493621826 1.94120931625366211 -6.33147954940795898 68 68 68
0.346609890460968018 1.65662813186645508 -8.72030735015869141 57 57 57
0.695077478885650635 2.00605058670043945 -5.77996635437011719 80 80 80
0.760632812976837158 2.0477755069732666 -5.26573467254638672 55 55 55
0.70513683557510376 1.68254780769348145 -8.63882541656494141 54 54 54
-0.151598617434501648 -0.209452703595161438 -12.6111602783203125 35 35 35
0.542609035968780518 1.15793752670288086 -13.3601112365722656 44 44 44
1.08458852767944336 1.98262512683868408 -5.95228290557861328 80 80 80
1.10860550403594971 1.96004927158355713 -6.18227720260620117 50 50 50
0.729976177215576172 1.15128993988037109 -13.2026329040527344 52 52 52
1.07376909255981445 1.75234758853912354 -8.15169525146484375 81 81 81
-0.257745206356048584 -1.13990688323974609 -12.5878610610961914 147 147 147
1.19377398490905762 1.39377439022064209 -11.7485227584838867 60 60 60
1.29687833786010742 1.80285787582397461 -7.8097071647644043 82 82 82
1.36454558372497559 1.94787800312042236 -6.42565774917602539 57 57 57
1.44473147392272949 1.42026114463806152 -11.735255241394043 95 95 95
-1.40294766426086426 -4.16286945343017578 -12.6107082366943359 159 159 159
1.5868222713470459 1.70511257648468018 -8.75381565093994141 63 63 63
1.68163108825683594 1.89778566360473633 -7.07738733291625977 73 73 73
1.7001340389251709 0.968394279479980469 -13.0617361068725586 100 100 100
1.73845386505126953 0.929779887199401855 -13.1330099105834961 66 66 66
1.98301064968109131 1.44628703594207764 -11.4870738983154297 89 89 89
1.96313285827636719 1.49759018421173096 -10.9288959503173828 63 63 63
2.1307823657989502 1.56869029998779297 -10.1063127517700195 53 53 53
2.09357476234436035 0.708405017852783203 -12.8319234848022461 87 87 87
1.50455045700073242 -0.583605110645294189 -13.0520877838134766 47 47 47
1.55357241630554199 -0.750337839126586914 -13.0095949172973633 114 114 114
2.4439549446105957 1.58407330513000488 -9.98100471496582031 48 48 48
2.64411163330078125 1.58275055885314941 -10.2892684936523438 88 88 88
2.78862857818603516 1.5488508939743042 -10.4953737258911133 89 89 89
2.79091906547546387 1.64225757122039795 -9.90911674499511719 60 60 60
3.0226588249206543 0.926072835922241211 -13.4118862152099609 42 42 42
1.70950472354888916 -1.63405001163482666 -12.9617853164672852 149 149 149
3.30247282981872559 1.35347509384155273 -12.8439483642578125 76 76 76
1.36474418640136719 -2.51063203811645508 -12.9571638107299805 122 122 122
1.89088940620422363 -1.75309145450592041 -12.8746814727783203 112 112 112
2.63411188125610352 1.97551965713500977 -6.61762619018554688 57 57 57
3.18778133392333984 1.64127039909362793 -9.819122314453125 48 48 48
2.8278813362121582 1.89805901050567627 -7.40668535232543945 87 87 87
3.71734952926635742 1.19633603096008301 -13.0117816925048828 26 26 26
3.85992097854614258 0.590294480323791504 -13.1929407119750977 65 65 65
4.27368497848510742 1.320159912109375 -12.5010700225830078 55 55 55
3.6835319995880127 1.71109569072723389 -9.32673263549804688 79 79 79
3.90480852127075195 1.5439450740814209 -10.4974632263183594 53 53 53
3.94139218330383301 1.50074005126953125 -10.706080436706543 55 55 55
3.61420345306396484 1.75405585765838623 -8.88228511810302734 93 93 93
4.34488582611083984 0.713898301124572754 -12.8801746368408203 32 32 32
4.54764890670776367 0.828931093215942383 -13.2646903991699219 110 110 110
4.69259309768676758 1.27778232097625732 -12.7751569747924805 41 41 41
4.60749483108520508 0.764196276664733887 -13.2377004623413086 107 107 107
3.68082571029663086 1.89085841178894043 -7.74583196640014648 84 84 84
4.93258857727050781 1.35109388828277588 -12.3524188995361328 92 92 92
4.94289684295654297 1.35474324226379395 -12.1359548568725586 90 90 90
3.85821866989135742 1.92879962921142578 -7.24311065673828125 47 47 47
4.58138132095336914 1.70490419864654541 -9.33959293365478516 56 56 56
6.51584672927856445 0.314137935638427734 -16.5799751281738281 39 39 39
4.75297451019287109 1.69872653484344482 -9.24415206909179688 50 50 50
6.52872467041015625 1.32382869720458984 -11.9534311294555664 91 91 91
8.97581005096435547 0.00826891977339982986 -18.2433414459228516 65 65 65
10.9645662307739258 -0.90270000696182251 -21.9398632049560547 48 48 48
17.5350360870361328 -5.45637702941894531 -39.5564460754394531 52 52 52
18.1418132781982422 -6.39481401443481445 -39.4884033203125 51 51 51
18.1617603302001953 -6.52375411987304688 -39.6306953430175781 58 58 58
22.1694469451904297 -15.0771675109863281 -53.8168449401855469 196 196 196
20.5455322265625 -6.08852672576904297 -41.9280891418457031 36 36 36
11.4517717361450195 -1.5319446325302124 -20.9279994964599609 56 56 56
20.8936443328857422 -15.3231239318847656 -48.8655319213867188 93 93 93
23.8499298095703125 -16.7658615112304688 -53.6698417663574219 58 58 58
24.3204460144042969 -16.5656108856201172 -53.17230224609375 46 46 46
22.9491462707519531 -18.2812290191650391 -51.5901451110839844 60 60 60
22.7970256805419922 -18.5195522308349609 -51.3774681091308594 67 67 67
24.6253528594970703 -17.3213691711425781 -53.2993698120117188 30 30 30
22.1782608032226562 -19.9865360260009766 -49.737884521484375 203 203 203
24.3656826019287109 -20.2760772705078125 -52.6124153137207031 63 63 63
11.7709321975708008 -0.359469205141067505 -16.1370315551757812 61 61 61
21.4336681365966797 -9.82057762145996094 -32.34625244140625 255 255 255
21.9463214874267578 -10.4958734512329102 -33.10845947265625 38 38 38
21.7544441223144531 -10.8216085433959961 -29.6478633880615234 96 96 96
21.1845531463623047 -9.76586627960205078 -28.2220115661621094 30 30 30
-3.63732409477233887 -4.68954610824584961 -12.2576236724853516 84 84 84
-3.61904120445251465 -3.84972262382507324 -12.3475408554077148 109 109 109
-3.59841179847717285 -4.72105598449707031 -12.2502918243408203 46 46 46
-3.6054680347442627 -3.67801690101623535 -12.3551120758056641 99 99 99
-3.55780267715454102 -4.75197172164916992 -12.2454977035522461 82 82 82
-3.56123733520507812 -3.62231636047363281 -12.3705167770385742 158 158 158
-3.51770114898681641 -4.43110752105712891 -12.29864501953125 129 129 129
-3.51807332038879395 -3.68135404586791992 -12.3857660293579102 125 125 125
-3.77884316444396973 1.04256629943847656 -12.8353509902954102 135 135 135
-3.80243444442749023 -0.23163093626499176 -13.2443180084228516 90 90 90
-3.7733314037322998 -0.261858135461807251 -13.2352457046508789 88 88 88
-3.42463779449462891 -4.42421197891235352 -12.2962646484375 108 108 108
-3.42318558692932129 -3.37886524200439453 -12.4138164520263672 131 131 131
-3.36209249496459961 -4.36802864074707031 -12.3095359802246094 140 140 140
-3.32882428169250488 -3.21507525444030762 -12.4250612258911133 163 163 163
-3.29879140853881836 -4.80113363265991211 -12.2781333923339844 116 116 116
-3.33495545387268066 -2.80165839195251465 -12.4790153503417969 129 129 129
-3.30439853668212891 -4.87744951248168945 -12.2822761535644531 133 133 133
-3.29984688758850098 -3.11992549896240234 -12.4468879699707031 135 135 135
-3.26055765151977539 -3.83098721504211426 -12.3745803833007812 163 163 163
-3.27293586730957031 -2.82407951354980469 -12.4683084487915039 169 169 169
-3.2266387939453125 -3.93732690811157227 -12.3760890960693359 142 142 142
-3.26193857192993164 -2.74827790260314941 -12.485417366027832 184 184 184
-3.24615192413330078 -3.09351778030395508 -12.4529094696044922 132 132 132
-3.10497784614562988 -5.41722440719604492 -12.2174758911132812 149 149 149
-3.12290740013122559 -3.75080204010009766 -12.4066524505615234 174 174 174
-3.03598880767822266 -5.21974802017211914 -12.25555419921875 124 124 124
-3.23475289344787598 -1.92748725414276123 -13.1272773742675781 31 31 31
-3.19169902801513672 -2.23054099082946777 -13.1959781646728516 61 61 61
-2.90930581092834473 -5.34007596969604492 -12.2499008178710938 136 136 136
-3.13085460662841797 -1.94149792194366455 -13.2165737152099609 39 39 39
-3.01297235488891602 -2.16927790641784668 -13.1573648452758789 35 35 35
-2.92954683303833008 1.12035882472991943 -12.8584671020507812 38 38 38
-2.68952608108520508 -2.35138988494873047 -12.5495805740356445 140 140 140
-2.81900978088378906 -1.93148112297058105 -13.2177801132202148 38 38 38
-2.84504175186157227 -1.73244941234588623 -13.2575187683105469 27 27 27
-2.9137122631072998 0.945826351642608643 -13.4660310745239258 57 57 57
-2.68810057640075684 -2.15567851066589355 -13.208465576171875 36 36 36
-2.83570265769958496 0.943593382835388184 -13.4600496292114258 156 156 156
-2.6937706470489502 0.191256865859031677 -13.3408479690551758 183 183 183
-2.20701956748962402 -2.2573847770690918 -12.5938186645507812 156 156 156
-2.15404796600341797 -2.22542214393615723 -12.6052255630493164 136 136 136
-2.16016173362731934 -1.44679200649261475 -12.7048158645629883 141 141 141
-2.10317039489746094 -2.3156287670135498 -12.5973958969116211 138 138 138
-2.06058025360107422 -2.25775361061096191 -12.6175746917724609 164 164 164
-1.85904455184936523 -4.15097332000732422 -12.4557161331176758 179 179 179
-1.95019328594207764 1.06116342544555664 -12.8567657470703125 111 111 111
-1.64333558082580566 -5.18873786926269531 -12.3753633499145508 150 150 150
-1.50719976425170898 -4.38542699813842773 -12.4651937484741211 158 158 158
-1.43328607082366943 -5.28199338912963867 -12.3507490158081055 110 110 110
-1.53727734088897705 -1.96138989925384521 -12.6955175399780273 144 144 144
-1.53561437129974365 -1.90116941928863525 -12.6919183731079102 173 173 173
-1.65524375438690186 1.17278492450714111 -12.6770772933959961 58 58 58
-1.41373860836029053 -5.20843219757080078 -12.3897371292114258 141 141 141
-1.39099287986755371 -5.27923250198364258 -12.3778724670410156 145 145 145
-1.39081192016601562 -4.98929071426391602 -12.4130115509033203 121 121 121
-1.3779374361038208 -4.3634495735168457 -12.4712057113647461 171 171 171
-1.27021467685699463 -4.60727882385253906 -12.472285270690918 166 166 166
-1.20254337787628174 -4.68969440460205078 -12.465001106262207 124 124 124
-1.19095456600189209 -5.26458358764648438 -12.3836879730224609 144 144 144
-1.16239285469055176 -4.60003471374511719 -12.478729248046875 181 181 181
-0.990887582302093506 -4.77329063415527344 -12.4467334747314453 106 106 106
-0.9407196044921875 -4.77177906036376953 -12.4490642547607422 106 106 106
-0.930878579616546631 0.261789917945861816 -12.3995943069458008 48 48 48
-0.887609481811523438 -0.29164692759513855 -12.3417444229125977 34 34 34
-0.680473983287811279 -4.64450502395629883 -12.4930839538574219 143 143 143
-0.798784792423248291 -0.29135093092918396 -12.379486083984375 36 36 36
-0.667128443717956543 -1.79308855533599854 -12.7561893463134766 130 130 130
-0.714208900928497314 1.1936715841293335 -12.4566383361816406 44 44 44
-0.535828113555908203 -1.77699065208435059 -12.7233667373657227 135 135 135
-0.359974682331085205 -4.30112838745117188 -12.5410060882568359 119 119 119
-0.284132421016693115 -4.26289653778076172 -12.5538053512573242 151 151 151
-0.194939106702804565 -4.33068323135375977 -12.5421133041381836 107 107 107
-0.40972447395324707 1.29332780838012695 -12.1819267272949219 64 64 64
-0.248459964990615845 -2.00291681289672852 -12.667572021484375 136 136 136
-0.16221347451210022 -4.00407886505126953 -12.5728740692138672 117 117 117
-0.229312926530838013 -1.7713240385055542 -12.7645416259765625 115 115 115
-0.0312836691737174988 -5.03310441970825195 -12.4750194549560547 125 125 125
0.0259576011449098587 -4.20077800750732422 -12.5769014358520508 150 150 150
0.041359536349773407 -4.25871038436889648 -12.5914430618286133 117 117 117
0.0975668951869010925 -4.67424917221069336 -12.5400285720825195 115 115 115
0.13147406280040741 -3.9456329345703125 -12.6271934509277344 143 143 143
0.186798200011253357 -4.36139011383056641 -12.5883464813232422 93 93 93
0.18976283073425293 -4.1078948974609375 -12.5898942947387695 108 108 108
0.213618919253349304 -3.95217490196228027 -12.6124343872070312 143 143 143
0.138762280344963074 -1.83630669116973877 -12.7901573181152344 112 112 112
0.222070366144180298 -2.92057991027832031 -12.7106389999389648 136 136 136
0.190798133611679077 -1.97046339511871338 -12.7817392349243164 111 111 111
0.0666769221425056458 1.36295473575592041 -11.6658782958984375 65 65 65
0.255420088768005371 -2.51096606254577637 -12.7366065979003906 152 152 152
0.290282726287841797 -2.05755829811096191 -12.8110027313232422 36 36 36
0.411980390548706055 -4.70698261260986328 -12.5326461791992188 120 120 120
0.411345481872558594 -4.61072683334350586 -12.5612459182739258 138 138 138
0.420097887516021729 -4.41983604431152344 -12.577336311340332 127 127 127
0.386460632085800171 -3.42576074600219727 -12.6645240783691406 125 125 125
0.369562834501266479 -2.52221560478210449 -12.7467355728149414 102 102 102
0.346809744834899902 -2.22674751281738281 -12.6714954376220703 44 44 44
0.412929296493530273 -2.52043509483337402 -12.7522859573364258 148 148 148
0.482973217964172363 -3.95350480079650879 -12.6218070983886719 127 127 127
0.40652582049369812 -2.29717636108398438 -12.4798069000244141 33 33 33
0.57782512903213501 -2.52284979820251465 -12.6823225021362305 113 113 113
0.411625087261199951 1.37119376659393311 -11.6923856735229492 63 63 63
0.64242708683013916 -2.91886401176452637 -12.7058868408203125 100 100 100
0.512225806713104248 1.21849942207336426 -13.1321401596069336 102 102 102
0.753151297569274902 -2.30028581619262695 -12.4928550720214844 34 34 34
0.956688284873962402 -5.18516159057617188 -12.5305595397949219 128 128 128
0.889813065528869629 -2.56490421295166016 -12.7826032638549805 134 134 134
0.719863474369049072 1.37935161590576172 -11.7153692245483398 61 61 61
1.25304853916168213 -4.25599241256713867 -12.649296760559082 113 113 113
1.21900463104248047 -2.9600377082824707 -12.7686357498168945 114 114 114
1.24292171001434326 -2.44167876243591309 -12.7863550186157227 89 89 89
1.01113712787628174 1.38365280628204346 -11.7501239776611328 54 54 54
1.27055859565734863 -2.09287738800048828 -12.8332004547119141 63 63 63
1.45079135894775391 -2.27562975883483887 -12.5779447555541992 32 32 32
1.49321150779724121 -2.09359908103942871 -12.8493614196777344 67 67 67
1.53931093215942383 -2.01873421669006348 -12.8668107986450195 32 32 32
1.58548665046691895 -2.44106078147888184 -12.6771669387817383 103 103 103
1.4872509241104126 0.571201860904693604 -13.0922327041625977 107 107 107
1.59120917320251465 -1.77746784687042236 -12.8626070022583008 116 116 116
1.60139405727386475 -1.89741086959838867 -12.8583478927612305 106 106 106
1.51422703266143799 0.196389675140380859 -13.0439319610595703 106 106 106
1.50065994262695312 0.603033781051635742 -13.0973625183105469 114 114 114
1.48589372634887695 1.12139797210693359 -13.1267843246459961 88 88 88
1.61195254325866699 -1.99439942836761475 -12.863377571105957 108 108 108
1.63816750049591064 -1.82467091083526611 -12.8641281127929688 112 112 112
1.64070522785186768 -1.14754807949066162 -12.9371480941772461 108 108 108
1.69375765323638916 -1.53376328945159912 -12.9110002517700195 123 123 123
1.6932060718536377 -1.46950101852416992 -12.9297971725463867 101 101 101
1.59902310371398926 1.01987087726593018 -13.1457347869873047 99 99 99
1.6154167652130127 0.918802559375762939 -13.1321525573730469 76 76 76
1.7065584659576416 -1.13716375827789307 -12.9412384033203125 155 155 155
1.64400064945220947 1.07415401935577393 -13.1559915542602539 56 56 56
1.71980106830596924 0.620103180408477783 -13.2553224563598633 93 93 93
1.71565961837768555 0.978329062461853027 -13.185236930847168 105 105 105
1.77479040622711182 1.05595231056213379 -13.16192626953125 106 106 106
1.78294956684112549 0.982050120830535889 -13.1642313003540039 113 113 113
1.81928765773773193 1.04406511783599854 -13.1789131164550781 66 66 66
1.96618926525115967 0.687417089939117432 -13.019169807434082 88 88 88
2.00226855278015137 0.596279561519622803 -13.1587209701538086 71 71 71
1.8399432897567749 1.41355669498443604 -11.6942253112792969 74 74 74
2.30156660079956055 0.564444243907928467 -13.1647005081176758 100 100 100
2.50577116012573242 -3.03762531280517578 -12.8181943893432617 111 111 111
2.30971384048461914 1.02124607563018799 -12.9088687896728516 31 31 31
2.48305344581604004 0.48514324426651001 -13.0384550094604492 92 92 92
2.78611898422241211 -4.40926218032836914 -12.7130584716796875 112 112 112
2.89833664894104004 0.422385036945343018 -13.1371984481811523 95 95 95
2.77176737785339355 0.690278947353363037 -12.5215415954589844 32 32 32
2.81847405433654785 0.593935906887054443 -12.6836004257202148 92 92 92
2.81623053550720215 0.661851882934570312 -12.5610799789428711 38 38 38
2.86655855178833008 1.32705903053283691 -12.4458656311035156 37 37 37
2.96185779571533203 0.775071680545806885 -12.7880315780639648 85 85 85
3.34866619110107422 -5.12907075881958008 -12.6836977005004883 97 97 97
3.19231796264648438 0.457456439733505249 -13.0963230133056641 91 91 91
3.25917887687683105 0.474462896585464478 -13.2198257446289062 40 40 40
3.46080279350280762 0.366061598062515259 -13.2053613662719727 95 95 95
3.52294826507568359 0.409587383270263672 -13.2170429229736328 90 90 90
3.61899900436401367 0.330982089042663574 -13.1889419555664062 81 81 81
3.53507781028747559 1.181907057762146 -12.90631103515625 49 49 49
3.76564979553222656 0.525626420974731445 -13.041168212890625 68 68 68
3.82567477226257324 0.255558699369430542 -13.1722955703735352 89 89 89
3.77832555770874023 0.656974136829376221 -12.9873924255371094 71 71 71
3.7514195442199707 0.817349851131439209 -12.8535127639770508 60 60 60
3.87044620513916016 0.594470381736755371 -13.24249267578125 70 70 70
4.56752443313598633 -1.82531607151031494 -13.0635881423950195 109 109 109
4.67180204391479492 -3.13369631767272949 -12.9440364837646484 99 99 99
4.71892642974853516 -3.7134709358215332 -12.8930749893188477 113 113 113
4.61913633346557617 -1.19017422199249268 -13.1364946365356445 94 94 94
4.55133485794067383 1.00987565517425537 -13.1388645172119141 39 39 39
4.67080068588256836 1.06150686740875244 -13.269221305847168 63 63 63
4.87532520294189453 -2.54019618034362793 -13.0764808654785156 110 110 110
4.64163494110107422 1.28894162178039551 -13.0247516632080078 34 34 34
4.86063575744628906 -1.84204792976379395 -13.1790990829467773 101 101 101
4.83123540878295898 -1.311187744140625 -13.1779556274414062 103 103 103
4.7999267578125 1.00742709636688232 -13.3918399810791016 30 30 30
4.74685001373291016 1.18369770050048828 -12.9056005477905273 77 77 77
4.78262138366699219 1.2531355619430542 -12.871027946472168 39 39 39
6.49476480484008789 0.0437491759657859802 -17.7987442016601562 39 39 39
4.77100181579589844 1.29459476470947266 -12.5972671508789062 35 35 35
9.79072952270507812 -6.12118768692016602 -26.0015964508056641 110 110 110
4.87917947769165039 1.30717408657073975 -12.3979625701904297 43 43 43
5.03967380523681641 1.26478397846221924 -12.4942502975463867 39 39 39
10.451420783996582 -6.82525539398193359 -25.3727931976318359 84 84 84
22.9592266082763672 -16.9586067199707031 -55.718719482421875 67 67 67
23.3949604034423828 -17.0153293609619141 -56.6530265808105469 161 161 161
5.31546878814697266 1.38757693767547607 -12.5428037643432617 73 73 73
22.9598255157470703 -18.2808017730712891 -54.6677665710449219 71 71 71
5.48782730102539062 1.30375230312347412 -12.9397983551025391 70 70 70
5.59541797637939453 0.959025681018829346 -13.174534797668457 27 27 27
22.3944683074951172 -16.7088470458984375 -53.3341712951660156 77 77 77
23.0444126129150391 -16.6568317413330078 -54.3228416442871094 55 55 55
23.2502040863037109 -16.4610061645507812 -54.806976318359375 48 48 48
5.6743621826171875 0.996597170829772949 -12.9955596923828125 90 90 90
5.55654764175415039 1.27690994739532471 -12.6834640502929688 76 76 76
23.1591987609863281 -17.4283885955810547 -53.6407890319824219 145 145 145
23.7604351043701172 -16.5559730529785156 -55.3741874694824219 56 56 56
23.5372772216796875 -16.2370777130126953 -54.8530693054199219 186 186 186
24.0570430755615234 -19.5066547393798828 -55.1319503784179688 124 124 124
23.3311557769775391 -17.7534542083740234 -53.4587821960449219 45 45 45
23.6728935241699219 -16.5869884490966797 -54.7206802368164062 56 56 56
5.77301931381225586 0.996303558349609375 -13.0248594284057617 76 76 76
23.6620521545410156 -17.7571735382080078 -53.8101768493652344 36 36 36
5.71667385101318359 1.21257472038269043 -12.8066940307617188 103 103 103
24.3087635040283203 -18.4503345489501953 -53.843658447265625 34 34 34
24.1000423431396484 -16.9964618682861328 -53.3895301818847656 32 32 32
5.97434425354003906 1.18841469287872314 -12.8407278060913086 49 49 49
8.89717960357666016 -0.281239926815032959 -19.6260299682617188 30 30 30
17.1326408386230469 -6.33557319641113281 -38.1840133666992188 58 58 58
6.00542259216308594 1.23116803169250488 -12.7922754287719727 70 70 70
6.08718156814575195 1.20088934898376465 -12.9095993041992188 35 35 35
6.00107717514038086 1.25918924808502197 -12.6479558944702148 42 42 42
5.26155853271484375 1.5049738883972168 -10.8751859664916992 70 70 70
8.34117317199707031 0.119288064539432526 -17.9229030609130859 55 55 55
5.3518366813659668 1.500640869140625 -10.9449291229248047 41 41 41
8.81004714965820312 -0.122732706367969513 -18.7810707092285156 37 37 37
5.07168340682983398 1.61391270160675049 -10.1378240585327148 37 37 37
4.6512298583984375 1.74170899391174316 -9.14376735687255859 41 41 41
4.89909029006958008 1.66429638862609863 -9.65940475463867188 41 41 41
21.1475543975830078 -6.59068775177001953 -45.0242042541503906 30 30 30
26.0866756439208984 -12.1413450241088867 -54.9757347106933594 48 48 48
8.901397705078125 0.0453409478068351746 -18.3735809326171875 33 33 33
10.6422567367553711 -1.2402033805847168 -22.1056060791015625 32 32 32
21.5048122406005859 -6.75621271133422852 -45.3822174072265625 84 84 84
21.1820411682128906 -5.83764171600341797 -44.8066215515136719 42 42 42
21.5649890899658203 -6.60781288146972656 -45.1891632080078125 29 29 29
10.688664436340332 -1.22177374362945557 -21.8904380798339844 23 23 23
9.08838844299316406 0.241089791059494019 -17.4884910583496094 62 62 62
8.49199485778808594 0.635975837707519531 -16.0456199645996094 68 68 68
8.9786834716796875 0.328413784503936768 -16.9581737518310547 67 67 67
26.813690185546875 -11.0358762741088867 -50.6184120178222656 25 25 25
9.06262493133544922 0.540799140930175781 -16.4285907745361328 38 38 38
22.9526233673095703 -5.58400344848632812 -42.9645767211914062 94 94 94
11.5093517303466797 -1.49611103534698486 -20.6606521606445312 55 55 55
11.8501930236816406 -1.7362673282623291 -21.0762672424316406 26 26 26
7.45870018005371094 1.21923267841339111 -12.8166913986206055 49 49 49
7.42906093597412109 1.25526785850524902 -12.5645275115966797 73 73 73
33.1369094848632812 -15.9860191345214844 -57.8926353454589844 58 58 58
33.0558204650878906 -15.4927577972412109 -57.6096725463867188 56 56 56
32.7146263122558594 -14.3903493881225586 -57.1704177856445312 42 42 42
8.92713069915771484 0.764880001544952393 -15.1087656021118164 45 45 45
11.509770393371582 -1.2849884033203125 -19.4878520965576172 62 62 62
11.9346323013305664 -1.40088534355163574 -20.1191158294677734 33 33 33
7.77679586410522461 1.22178351879119873 -12.7013006210327148 68 68 68
9.562469482421875 0.66730952262878418 -15.7621593475341797 53 53 53
11.5662717819213867 -1.13973450660705566 -18.6581230163574219 60 60 60
9.40789031982421875 0.873982548713684082 -14.8728542327880859 54 54 54
21.638885498046875 -7.99830484390258789 -34.2861328125 143 143 143
21.4537162780761719 -7.71239042282104492 -33.7204933166503906 46 46 46
21.4229698181152344 -9.95743274688720703 -32.8030624389648438 46 46 46
13.2666406631469727 -1.78944551944732666 -18.4501285552978516 66 66 66
-1.10190689563751221 1.68873882293701172 -8.24468040466308594 85 85 85
-1.0097278356552124 1.71444392204284668 -8.16403579711914062 112 112 112
-1.2300114631652832 1.67230093479156494 -8.39975833892822266 102 102 102
-0.508814096450805664 1.765342116355896 -7.5793910026550293 118 118 118
-1.2254256010055542 1.65623581409454346 -8.43010616302490234 112 112 112
-1.44261682033538818 1.62958407402038574 -8.68340396881103516 87 87 87
-1.43381214141845703 1.63124418258666992 -8.70555782318115234 78 78 78
-0.0383567921817302704 1.83892571926116943 -7.06567764282226562 101 101 101
-0.171199291944503784 1.82451438903808594 -7.2483067512512207 66 66 66
-1.19707250595092773 1.64483249187469482 -8.45112133026123047 81 81 81
-0.274776726961135864 1.79705560207366943 -7.38328409194946289 116 116 116
-0.809015154838562012 1.71938741207122803 -8.03600406646728516 79 79 79
-1.53913986682891846 1.60186362266540527 -8.88144683837890625 77 77 77
-0.418687731027603149 1.77217590808868408 -7.58221864700317383 71 71 71
-1.18154036998748779 1.65411806106567383 -8.51831722259521484 126 126 126
-1.41027140617370605 1.62218177318572998 -8.78950214385986328 149 149 149
-0.432669758796691895 1.76649761199951172 -7.63578605651855469 120 120 120
-1.31860184669494629 1.62405109405517578 -8.71140575408935547 92 92 92
-0.965791702270507812 1.68349719047546387 -8.30843639373779297 87 87 87
-0.227371588349342346 1.79461908340454102 -7.41350936889648438 84 84 84
-0.588756859302520752 1.73906457424163818 -7.87842607498168945 98 98 98
-1.54013431072235107 1.56858980655670166 -9.02709102630615234 76 76 76
-0.174936875700950623 1.79797577857971191 -7.41441631317138672 79 79 79
-1.17958176136016846 1.64004683494567871 -8.67444896697998047 79 79 79
-0.642506837844848633 1.71772933006286621 -8.05744361877441406 82 82 82
-0.340502351522445679 1.75754368305206299 -7.67663335800170898 70 70 70
-0.898604989051818848 1.68003010749816895 -8.38625907897949219 82 82 82
0.0868572220206260681 1.83787107467651367 -7.15700674057006836 115 115 115
-0.364574551582336426 1.75720930099487305 -7.73946094512939453 79 79 79
-0.649786233901977539 1.71238231658935547 -8.11283969879150391 72 72 72
-1.22476744651794434 1.61578643321990967 -8.82999897003173828 123 123 123
-0.459767013788223267 1.73654830455780029 -7.90513801574707031 105 105 105
-0.0375987105071544647 1.81004667282104492 -7.36746740341186523 98 98 98
-1.44345641136169434 1.57672560214996338 -9.11221122741699219 78 78 78
0.0874762758612632751 1.83461499214172363 -7.20942211151123047 70 70 70
-0.770545899868011475 1.69380497932434082 -8.32395267486572266 75 75 75
-0.297931969165802002 1.75742983818054199 -7.72179698944091797 65 65 65
-1.03300130367279053 1.65120196342468262 -8.66249752044677734 105 105 105
-0.425983935594558716 1.74282562732696533 -7.90769433975219727 104 104 104
0.0169451013207435608 1.80785572528839111 -7.33285045623779297 83 83 83
-1.2412799596786499 1.6181185245513916 -8.94618797302246094 114 114 114
-0.739737153053283691 1.68537187576293945 -8.34539699554443359 66 66 66
-2.27725052833557129 1.43197834491729736 -10.1988315582275391 93 93 93
-0.769979953765869141 1.68224918842315674 -8.40098476409912109 104 104 104
-1.11542904376983643 1.61945986747741699 -8.83760166168212891 80 80 80
0.0950408950448036194 1.82194948196411133 -7.28086376190185547 69 69 69
-1.33380651473999023 1.58480966091156006 -9.10952091217041016 67 67 67
-0.71703726053237915 1.68294680118560791 -8.34695816040039062 117 117 117
-0.693324744701385498 1.69320785999298096 -8.32647800445556641 79 79 79
-1.95337080955505371 1.47889912128448486 -9.8555450439453125 86 86 86
-1.12119591236114502 1.61084091663360596 -8.87294769287109375 133 133 133
-0.738118648529052734 1.67530357837677002 -8.39054489135742188 112 112 112
-1.15697944164276123 1.60543596744537354 -8.92249393463134766 89 89 89
-1.41659021377563477 1.56669580936431885 -9.25759029388427734 112 112 112
0.123061239719390869 1.83027553558349609 -7.29326677322387695 72 72 72
-1.52068865299224854 1.54796159267425537 -9.41350936889648438 135 135 135
-0.794714272022247314 1.66474997997283936 -8.50305366516113281 69 69 69
0.21349780261516571 1.84999406337738037 -7.19181251525878906 57 57 57
-0.724902987480163574 1.67483770847320557 -8.42299556732177734 121 121 121
-0.0102230394259095192 1.79811394214630127 -7.5025629997253418 73 73 73
-1.01532971858978271 1.62571704387664795 -8.819488525390625 94 94 94
-0.570699930191040039 1.70560824871063232 -8.266571044921875 68 68 68
0.204130634665489197 1.83806872367858887 -7.22533082962036133 56 56 56
-1.10880720615386963 1.59583461284637451 -8.9360198974609375 86 86 86
-1.27986466884613037 1.57880818843841553 -9.17708873748779297 65 65 65
-2.27097916603088379 1.43543159961700439 -10.4084577560424805 95 95 95
-1.39956068992614746 1.54651141166687012 -9.36835384368896484 79 79 79
-0.369623839855194092 1.73100936412811279 -8.07431888580322266 65 65 65
-1.62255477905273438 1.51451635360717773 -9.68712902069091797 95 95 95
0.201386645436286926 1.82220470905303955 -7.29550838470458984 65 65 65
-0.862637579441070557 1.640960693359375 -8.75209236145019531 125 125 125
-0.436883270740509033 1.70586371421813965 -8.18627643585205078 69 69 69
-1.00318992137908936 1.61664474010467529 -8.94083213806152344 107 107 107
0.186773359775543213 1.82501089572906494 -7.34975337982177734 93 93 93
-0.323786675930023193 1.72392022609710693 -8.04262638092041016 86 86 86
0.0774450004100799561 1.80208265781402588 -7.50554800033569336 74 74 74
-0.81003338098526001 1.63145864009857178 -8.67850017547607422 119 119 119
0.171690419316291809 1.81808054447174072 -7.37785768508911133 96 96 96
0.207374677062034607 1.83042788505554199 -7.33879852294921875 56 56 56
-2.16229772567749023 1.43053078651428223 -10.4526233673095703 89 89 89
-0.804869353771209717 1.63796877861022949 -8.72378635406494141 85 85 85
-0.796385526657104492 1.65071773529052734 -8.72787570953369141 86 86 86
0.227451831102371216 1.83269262313842773 -7.34215927124023438 85 85 85
-0.175391122698783875 1.73724269866943359 -7.88387870788574219 74 74 74
-0.739781379699707031 1.65346193313598633 -8.66299629211425781 115 115 115
0.196221262216567993 1.81738376617431641 -7.38665580749511719 57 57 57
0.288059890270233154 1.83425521850585938 -7.26738834381103516 55 55 55
0.30063137412071228 1.84100031852722168 -7.25639820098876953 83 83 83
0.085363142192363739 1.79317975044250488 -7.55908727645874023 60 60 60
-1.19960558414459229 1.56141889095306396 -9.28700160980224609 85 85 85
-2.19551515579223633 1.42454051971435547 -10.5989227294921875 119 119 119
-0.344909131526947021 1.70816802978515625 -8.18072986602783203 116 116 116
-0.137937918305397034 1.74619340896606445 -7.89896011352539062 78 78 78
0.0557889752089977264 1.78470492362976074 -7.64190292358398438 73 73 73
-0.425777196884155273 1.6922760009765625 -8.31235408782958984 56 56 56
-0.383924990892410278 1.69470560550689697 -8.27106380462646484 90 90 90
-1.71146368980407715 1.47995412349700928 -10.0474023818969727 92 92 92
-0.0729534998536109924 1.74487972259521484 -7.83890104293823242 147 147 147
-0.842549443244934082 1.62156319618225098 -8.90596771240234375 71 71 71
-0.736988604068756104 1.64612257480621338 -8.78174877166748047 76 76 76
-3.46959018707275391 1.21904027462005615 -12.294520378112793 112 112 112
-0.0900020450353622437 1.74709451198577881 -7.89710187911987305 88 88 88
-0.384211540222167969 1.68488490581512451 -8.30328369140625 64 64 64
-0.133133813738822937 1.73904359340667725 -7.98241901397705078 104 104 104
-0.708720386028289795 1.64930295944213867 -8.79655933380126953 70 70 70
-1.24203705787658691 1.53690874576568604 -9.48862075805664062 85 85 85
-0.719884574413299561 1.62997782230377197 -8.80497169494628906 109 109 109
-0.286925435066223145 1.70444798469543457 -8.23563194274902344 125 125 125
0.366120278835296631 1.82572329044342041 -7.29697799682617188 47 47 47
-1.92671692371368408 1.44696235656738281 -10.4638586044311523 150 150 150
-0.117672868072986603 1.73047566413879395 -7.99410009384155273 66 66 66
-0.301480621099472046 1.69432401657104492 -8.25349998474121094 79 79 79
-0.057434428483247757 1.74633610248565674 -7.93411064147949219 89 89 89
-0.753682076930999756 1.63088488578796387 -8.92722702026367188 83 83 83
0.306611388921737671 1.81764423847198486 -7.41718435287475586 86 86 86
-0.90079045295715332 1.59683132171630859 -9.12144947052001953 71 71 71
-1.05343163013458252 1.56035220623016357 -9.32005596160888672 121 121 121
-1.30845499038696289 1.51509761810302734 -9.66216850280761719 120 120 120
0.419877439737319946 1.83632183074951172 -7.26071262359619141 85 85 85
0.308818250894546509 1.81192159652709961 -7.45735454559326172 57 57 57
-3.73114442825317383 1.06709158420562744 -12.8063259124755859 68 68 68
-0.402611911296844482 1.66767716407775879 -8.48767280578613281 67 67 67
-0.0304354764521121979 1.73857760429382324 -7.97095918655395508 97 97 97
0.383840262889862061 1.81310498714447021 -7.35628175735473633 64 64 64
-1.27495551109313965 1.51169753074645996 -9.73076152801513672 83 83 83
-0.136665225028991699 1.71321594715118408 -8.17234325408935547 103 103 103
-0.828260064125061035 1.58838808536529541 -9.15401458740234375 77 77 77
-1.2032243013381958 1.51462781429290771 -9.65884685516357422 117 117 117
-1.23232495784759521 1.50064146518707275 -9.69339847564697266 81 81 81
0.437354505062103271 1.81901013851165771 -7.33254909515380859 59 59 59
-0.884452998638153076 1.58480048179626465 -9.26883125305175781 119 119 119
-3.52793455123901367 1.12176990509033203 -12.8010101318359375 66 66 66
-0.6354408860206604 1.6259990930557251 -8.94019031524658203 81 81 81
0.372604876756668091 1.80592072010040283 -7.48252964019775391 61 61 61
0.280021756887435913 1.78895533084869385 -7.63807487487792969 114 114 114
0.121124096214771271 1.75029551982879639 -7.87069177627563477 68 68 68
-0.90438389778137207 1.5658879280090332 -9.36407947540283203 127 127 127
0.181256085634231567 1.75527048110961914 -7.77983283996582031 96 96 96
0.343844324350357056 1.7954859733581543 -7.54806947708129883 68 68 68
-1.02546501159667969 1.51844608783721924 -9.51159572601318359 92 92 92
-3.91495537757873535 0.934799551963806152 -13.2909688949584961 154 154 154
-0.881556391716003418 1.55794024467468262 -9.38921356201171875 96 96 96
-3.67055821418762207 1.03558886051177979 -13.1146001815795898 143 143 143
-3.22830462455749512 1.1781308650970459 -12.6242084503173828 108 108 108
0.394086778163909912 1.80423343181610107 -7.53031253814697266 47 47 47
0.344933599233627319 1.78949558734893799 -7.60406208038330078 105 105 105
-3.87386941909790039 0.779606044292449951 -13.0710391998291016 175 175 175
-3.84891200065612793 0.982529759407043457 -13.3696584701538086 68 68 68
-0.663226127624511719 1.60227000713348389 -9.13311767578125 124 124 124
-0.0364164859056472778 1.71505534648895264 -8.20901393890380859 70 70 70
